# .PCD v0.7 - Point Cloud Data file format
VERSION 0.7
FIELDS x y z intensity
SIZE 4 4 4 4
TYPE F F F F
COUNT 1 1 1 1
WIDTH 2020
HEIGHT 1
VIEWPOINT 0 0 0 1 0 0 0
POINTS 2020
DATA ascii
7.62654 7.53045 3.53138 2
7.54697 7.28832 3.46661 2
7.40816 6.99669 3.37631 4
7.42458 6.85711 3.3577 4
7.36138 6.64796 3.3042 6
7.30875 6.45386 3.25642 2
7.35 6.345 3.25094 4
7.30645 6.16586 3.20881 4
7.27972 6.00919 3.17724 4
7.23814 5.83904 3.13758 5
7.16803 5.65021 3.08621 3
7.18071 5.53032 3.07152 2
7.17307 5.39644 3.04842 3
7.10804 5.226 3.0038 2
7.11908 5.11126 2.98983 3
7.08592 4.96684 2.958 3
7.05671 4.83064 2.93011 3
7.09788 4.74137 2.92993 4
7.05323 4.59952 2.89668 4
7.05592 4.48755 2.88175 3
7.04373 4.37028 2.8624 4
6.96656 4.21338 2.81575 2
7.01992 4.13931 2.82402 4
6.93335 3.98424 2.77629 5
6.97624 3.90545 2.78068 4
6.91056 3.76764 2.74204 4
6.87203 3.64674 2.71481 5
6.90732 3.56662 2.71719 4
6.88673 3.45806 2.69758 5
6.83955 3.33818 2.66799 3
6.82031 3.23413 2.64966 4
6.83405 3.14639 2.64454 5
6.78582 3.03267 2.61665 5
6.78415 2.94024 2.60624 6
6.75923 2.83993 2.58771 5
6.71608 2.73238 2.56177 5
6.75395 2.6598 2.56815 6
6.67251 2.54149 2.52901 4
6.73098 2.47706 2.54325 5
6.69996 2.38015 2.52383 6
6.71684 2.30111 2.52278 5
6.7099 2.21489 2.51358 6
6.66659 2.11729 2.49026 6
6.65772 2.0322 2.48077 6
6.65226 1.94894 2.47272 7
6.6235 1.85969 2.45603 5
6.64789 1.78578 2.4595 6
6.62625 1.69985 2.44569 7
6.64465 1.62469 2.44702 6
6.64361 1.54527 2.44183 7
6.63261 1.46401 2.43304 7
6.61139 1.38122 2.42086 6
6.59857 1.30066 2.41161 8
6.55215 1.21515 2.39097 6
6.56997 1.14141 2.39309 6
6.58672 1.06778 2.39564 8
6.5377 0.984246 2.37432 7
6.54821 0.910283 2.3754 7
6.57164 0.837891 2.38111 7
6.51991 0.756505 2.35955 6
6.54671 0.6846 2.36653 8
6.52586 0.607695 2.35638 6
6.51348 0.532405 2.34983 6
6.53798 0.459969 2.3566 8
6.51447 0.384337 2.34666 7
6.53259 0.311147 2.35131 7
6.54048 0.237295 2.35279 8
6.51459 0.162727 2.34264 7
6.549 0.0894214 2.35406 8
6.56397 0.0151131 2.3587 7
6.54044 -0.058963 2.3494 7
6.55862 -0.133368 2.3551 7
6.57103 -0.208049 2.35953 7
6.56377 -0.282242 2.3572 7
6.55588 -0.356328 2.35423 7
6.53774 -0.42969 2.34832 7
6.46715 -0.498541 2.32344 4
6.54588 -0.579395 2.35273 7
6.56738 -0.656332 2.36155 7
6.56479 -0.7313 2.36174 7
6.56133 -0.80616 2.36171 7
6.56654 -0.882381 2.36482 7
6.58463 -0.960743 2.37318 7
6.58337 -1.03681 2.3746 7
6.52062 -1.10309 2.35464 4
6.57331 -1.18852 2.37574 7
6.55548 -1.26228 2.37212 6
6.56011 -1.34021 2.37665 7
6.60064 -1.42653 2.39431 7
6.55273 -1.49398 2.37979 6
6.57745 -1.57829 2.39262 7
6.61022 -1.66563 2.40853 7
6.5919 -1.74065 2.40588 3
6.57271 -1.81544 2.40301 6
6.57551 -1.89656 2.40822 6
6.56395 -1.97366 2.40822 6
6.59603 -2.0653 2.4252 6
6.61384 -2.15288 2.4365 6
6.61705 -2.2373 2.44303 6
6.65011 -2.33281 2.46107 6
6.61572 -2.40499 2.45436 3
6.62469 -2.49338 2.46364 6
6.62827 -2.58062 2.47124 6
6.63899 -2.67233 2.48254 5
6.67967 -2.77648 2.50432 6
6.65752 -2.8566 2.50385 5
6.64802 -2.94125 2.50732 5
6.67992 -3.04671 2.52751 6
6.77466 -3.18334 2.57199 3
6.69706 -3.24004 2.55118 5
6.7587 -3.3651 2.58361 5
6.73853 -3.45068 2.58521 5
6.76769 -3.56286 2.60588 5
6.74514 -3.64881 2.60714 5
6.78398 -3.76913 2.63221 5
6.81265 -3.8863 2.6537 5
6.8397 -4.00431 2.67507 3
6.81128 -4.09296 2.6761 4
6.87166 -4.23489 2.71135 4
6.91227 -4.37014 2.74059 3
6.89301 -4.46637 2.74484 4
6.92208 -4.59841 2.77065 3
6.92727 -4.71384 2.78551 4
6.99151 -4.87531 2.82626 4
7.00677 -5.00555 2.84794 3
7.00674 -5.12368 2.86183 3
7.02968 -5.26436 2.88765 3
7.04697 -5.40315 2.91147 3
7.13661 -5.60151 2.96592 3
7.13757 -5.73456 2.98439 3
7.09878 -5.83232 2.98455 3
7.13282 -5.99663 3.01789 3
7.22909 -6.21816 3.07835 2
7.17489 -6.31361 3.07561 2
7.20826 -6.4884 3.1107 3
7.30877 -6.72914 3.17598 2
7.29041 -6.86511 3.1904 3
7.42818 -7.15346 3.27427 2
7.37039 -7.26505 3.27558 2
7.43865 -7.49813 3.33115 3
7.6126 -7.84692 3.43576 1
7.48786 -7.89247 3.40594 2
7.60032 -8.19114 3.48528 2
7.61405 -8.3911 3.52061 2
7.71806 -8.70642 3.60256 2
7.76486 -8.95698 3.65586 1
7.75758 -9.15091 3.68518 2
7.85405 -9.47497 3.76501 1
0 0 0 0
0 0 0 0
8.05789 -10.4132 3.97941 1
0 0 0 0
0 0 0 0
0 0 0 0
0 0 0 0
0 0 0 0
0 0 0 0
0 0 0 0
0 0 0 0
0 0 0 0
0 0 0 0
0 0 0 0
0 0 0 0
0 0 0 0
0 0 0 0
0 0 0 0
0 0 0 0
4.19215 7.43761 2.66728 6
4.26545 7.3813 2.67439 13
4.34046 7.32839 2.68298 16
4.43185 7.29236 2.698 17
4.44536 7.14042 2.67001 9
4.49458 7.03864 2.66042 10
4.58691 7.01519 2.68044 16
4.65812 6.95859 2.68832 24
4.70607 6.8596 2.67977 24
4.81963 6.86412 2.71191 30
4.93388 6.86691 2.74421 26
4.98248 6.76974 2.7366 8
0 0 0 0
5.13969 6.67364 2.7622 1
5.27906 6.69427 2.80414 11
5.30556 6.57858 2.7894 2
0 0 0 0
8.77913 10.41 4.5251 2
8.63216 10.0001 4.40213 1
8.58549 9.72688 4.3372 1
8.38455 9.29051 4.19711 1
0 0 0 0
0 0 0 0
8.023 8.31676 3.91116 2
8.00929 8.11994 3.87176 2
7.86823 7.80143 3.77212 3
7.77588 7.53942 3.69776 2
7.64787 7.25147 3.60806 2
7.57729 7.02517 3.54709 6
7.60076 6.89019 3.53102 6
7.60485 6.73975 3.50668 5
7.48517 6.48508 3.42628 5
7.48014 6.33461 3.39955 5
7.49064 6.20031 3.38056 5
7.40433 5.98889 3.31837 7
7.42269 5.87066 3.30659 6
7.43839 5.74718 3.29183 4
7.36574 5.55885 3.23831 3
7.39038 5.45068 3.23084 3
7.36974 5.30726 3.20158 4
7.30866 5.13798 3.15554 4
7.30114 5.0126 3.13549 5
7.24657 4.85458 3.09385 4
7.28671 4.76466 3.09476 4
7.21835 4.60575 3.05034 6
7.18942 4.4725 3.02118 5
7.17705 4.35412 3.00114 3
7.15092 4.22909 2.97596 5
7.12712 4.10781 2.9521 5
7.09755 3.985 2.92645 6
7.12407 3.89493 2.9239 6
7.06241 3.75831 2.88596 5
7.06975 3.6603 2.87626 6
7.02555 3.53715 2.84611 6
7.04298 3.44641 2.84117 5
7.02946 3.34151 2.82401 6
7.05229 3.25626 2.82319 6
7.01496 3.14264 2.79715 7
6.95794 3.02394 2.76469 7
6.96523 2.93315 2.75712 6
6.93578 2.82927 2.7363 7
6.91379 2.72972 2.71885 6
6.8994 2.63423 2.70455 5
6.91915 2.55249 2.70375 7
6.88923 2.45316 2.68376 7
6.89739 2.36932 2.67971 7
6.85641 2.26848 2.65596 8
6.84483 2.17937 2.64472 7
6.85474 2.09769 2.64187 8
6.85935 2.01453 2.63705 7
6.81776 1.9186 2.61467 6
6.82491 1.83753 2.61108 8
6.83129 1.7563 2.60726 7
6.79978 1.66646 2.59024 7
6.79472 1.58413 2.58316 8
6.78931 1.50142 2.57516 7
6.80034 1.42375 2.57545 8
6.80192 1.34368 2.57114 8
6.7841 1.26073 2.56032 6
6.79318 1.18266 2.55903 8
6.75023 1.09643 2.53905 7
6.76645 1.02077 2.54212 8
6.75879 0.941103 2.53538 8
6.73625 0.8603 2.52385 8
6.73157 0.782176 2.51907 8
6.70733 0.702417 2.5071 7
6.7239 0.627095 2.51102 7
6.74918 0.552326 2.51821 8
6.72687 0.473621 2.50775 8
6.75041 0.398534 2.51517 9
6.708 0.319679 2.49708 8
6.72065 0.243707 2.50035 7
6.74648 0.168091 2.50906 8
6.74802 0.0914062 2.50884 7
6.67838 0.0147858 2.48227 7
6.69266 -0.0612286 2.48662 8
6.6871 -0.137178 2.48379 8
6.71369 -0.213848 2.49336 9
6.70148 -0.289755 2.48945 8
6.6748 -0.364681 2.47944 8
6.66599 -0.440094 2.47662 8
6.68436 -0.517572 2.484 8
6.65533 -0.591431 2.47379 6
6.73258 -0.675525 2.50394 9
6.70645 -0.749845 2.49546 9
6.73069 -0.830056 2.50583 9
6.74001 -0.909126 2.51144 9
6.73934 -0.986818 2.51246 8
6.75165 -1.06714 2.51911 9
6.70264 -1.13778 2.50396 7
6.72698 -1.22054 2.51533 7
6.73645 -1.30147 2.52196 9
6.74079 -1.38153 2.52595 8
6.74829 -1.46346 2.53255 9
6.74586 -1.54336 2.53501 9
6.76095 -1.62753 2.54411 8
6.73832 -1.70344 2.53991 9
6.73773 -1.78503 2.54406 8
6.71803 -1.86157 2.54111 6
6.76084 -1.95639 2.56189 9
6.75735 -2.03862 2.56529 8
6.76651 -2.12502 2.57379 8
6.76513 -2.20969 2.57909 8
6.78586 -2.30149 2.59217 8
6.77383 -2.38361 2.59378 8
6.83587 -2.49296 2.62397 7
6.79529 -2.56587 2.61488 6
6.81961 -2.66369 2.63116 8
6.83865 -2.76071 2.64546 7
6.83822 -2.85206 2.65343 7
6.85913 -2.95197 2.66882 7
6.90799 -3.06693 2.69688 7
6.90039 -3.15705 2.70155 7
6.84417 -3.22616 2.68876 6
6.91014 -3.35397 2.72421 6
6.91525 -3.45412 2.73592 8
6.93592 -3.56361 2.75423 7
6.94684 -3.66929 2.76887 6
6.95616 -3.77586 2.78318 7
6.96413 -3.8828 2.79741 7
6.97073 -3.99062 2.8113 6
6.96373 -4.09161 2.8199 5
7.01614 -4.22949 2.85284 6
7.03703 -4.353 2.87518 6
7.08945 -4.49646 2.90943 7
7.09612 -4.61305 2.92524 6
7.131 -4.75298 2.95481 6
7.11078 -4.85509 2.96007 6
7.15735 -5.00812 2.99557 5
7.1746 -5.14363 3.01927 4
7.20712 -5.28889 3.04812 5
7.23157 -5.43505 3.07604 5
7.26097 -5.58804 3.107 6
7.37625 -5.80755 3.17309 4
7.27125 -5.86013 3.14706 5
7.36747 -6.07704 3.2087 5
7.34723 -6.20196 3.22043 3
7.41164 -6.40145 3.27005 3
7.47259 -6.60339 3.31902 3
7.5054 -6.78482 3.35662 4
7.55986 -6.9906 3.40462 4
7.61763 -7.20491 3.45539 4
7.60332 -7.3556 3.47425 4
7.71871 -7.63712 3.55358 4
7.73562 -7.82711 3.58857 3
7.72615 -7.99478 3.6121 3
7.88051 -8.33946 3.71428 3
7.84488 -8.48905 3.72749 3
7.90579 -8.74864 3.78792 3
7.99028 -9.04276 3.86155 3
8.01816 -9.28934 3.91298 3
8.0958 -9.59254 3.98661 3
8.18326 -9.91663 4.06673 2
8.2106 -10.1775 4.11911 2
8.39921 -10.6614 4.25951 2
8.43267 -10.9501 4.31908 2
8.54196 -11.3478 4.41919 2
8.59356 -11.6963 4.4985 2
8.57935 -11.9498 4.53938 2
0 0 0 0
0 0 0 0
0 0 0 0
0 0 0 0
0 0 0 0
0 0 0 0
0 0 0 0
0 0 0 0
12.3529 -21.444 7.32838 3
0 0 0 0
0 0 0 0
12.4788 23.4893 8.50243 5
12.5468 22.9774 8.40088 4
4.17909 7.46099 2.75571 10
4.22951 7.35226 2.7435 17
4.31402 7.31585 2.75847 22
4.41792 7.31101 2.7856 21
4.37693 7.05937 2.71871 11
4.45644 7.01698 2.73144 26
4.5816 7.03466 2.76844 18
4.60048 6.89913 2.74515 26
4.67352 6.84608 2.75448 31
4.79625 6.85563 2.78963 32
4.91033 6.85828 2.82285 27
4.96627 6.77888 2.82253 3
0 0 0 0
0 0 0 0
5.1931 6.61366 2.85359 5
0 0 0 0
0 0 0 0
9.00734 10.7233 4.80141 2
8.94917 10.4074 4.71932 2
8.86373 10.0806 4.63034 2
0 0 0 0
8.63794 9.39532 4.43049 1
0 0 0 0
0 0 0 0
8.25003 8.39274 4.12254 2
13.7115 13.6402 6.79475 8
8.07549 7.85567 3.96903 2
7.95206 7.5638 3.87728 4
7.82015 7.2728 3.78301 3
7.81218 7.10297 3.75016 4
7.76238 6.90005 3.69833 4
7.71358 6.70752 3.65124 6
7.69712 6.54187 3.61705 8
7.67471 6.37462 3.58067 6
7.67486 6.22901 3.55595 5
7.54163 5.98458 3.47299 7
7.55891 5.85936 3.45776 6
7.57443 5.73464 3.44214 5
7.48784 5.5399 3.38328 3
7.55274 5.45555 3.39103 4
7.47237 5.27213 3.33631 5
7.43778 5.12117 3.30075 5
7.45758 5.01309 3.29202 4
7.3619 4.83027 3.23268 5
7.37195 4.71657 3.21856 5
7.42659 4.63482 3.22626 4
7.32016 4.45487 3.16413 3
7.37214 4.37363 3.17144 4
7.28967 4.21403 3.12086 5
7.26573 4.09162 3.0962 5
7.25245 3.97674 3.07642 5
7.26688 3.87782 3.06851 6
7.21337 3.74501 3.0326 5
7.21233 3.64104 3.01907 6
7.22685 3.54549 3.01224 4
7.16716 3.41731 2.97633 5
7.1877 3.32689 2.97267 6
7.11233 3.19544 2.93106 7
7.11208 3.09964 2.92078 6
7.09451 2.99583 2.90215 7
7.07903 2.89548 2.88625 6
7.05828 2.79399 2.86804 6
6.99653 2.67815 2.83386 5
7.05582 2.6103 2.84993 6
7.00921 2.50305 2.82224 7
7.00548 2.41199 2.81201 7
7.00474 2.32359 2.80426 6
7.02065 2.241 2.80335 7
6.99111 2.14466 2.78441 7
6.97394 2.05303 2.77053 6
6.96005 1.96334 2.75818 6
6.95425 1.87668 2.74913 6
6.93806 1.78829 2.73698 8
6.92574 1.70115 2.72565 8
6.92118 1.61708 2.71859 7
6.91124 1.53205 2.70926 8
6.94161 1.45628 2.71578 8
6.89737 1.36569 2.69414 7
6.90749 1.28624 2.69373 6
6.87965 1.20048 2.67877 7
6.89726 1.12293 2.68147 8
6.88168 1.03994 2.67118 8
6.86948 0.958454 2.66335 7
6.87043 0.879268 2.66045 7
6.88458 0.801459 2.66269 7
6.86533 0.720137 2.65194 7
6.82631 0.637711 2.63468 5
6.81443 0.558406 2.62773 7
6.89496 0.486089 2.65643 7
6.84868 0.404645 2.63692 7
6.83429 0.325698 2.62907 7
6.81433 0.247007 2.61988 7
6.86344 0.170587 2.63782 8
6.85101 0.0922876 2.63221 7
6.82857 0.0142871 2.6228 7
6.83324 -0.0634424 2.6237 8
6.8279 -0.141085 2.62079 8
6.81212 -0.218546 2.61475 7
6.81855 -0.296478 2.61788 8
6.81986 -0.374367 2.61811 7
6.79233 -0.450508 2.60828 8
6.76859 -0.52648 2.59979 7
6.8605 -0.612183 2.63576 7
6.82564 -0.687697 2.62392 8
6.86443 -0.770689 2.6402 8
6.82341 -0.844756 2.62591 7
6.85123 -0.927484 2.63815 8
6.85471 -1.00766 2.64191 8
6.85263 -1.08719 2.64343 8
6.82219 -1.16223 2.63405 7
6.86011 -1.24895 2.65134 8
6.85104 -1.32793 2.65038 8
6.86371 -1.41172 2.65875 9
6.871 -1.49491 2.66509 7
6.86837 -1.57631 2.66742 8
6.83703 -1.65166 2.66004 8
6.8282 -1.73175 2.66013 7
6.82698 -1.81469 2.66467 6
6.88808 -1.91513 2.6934 7
6.86709 -1.9937 2.69013 7
6.89893 -2.08831 2.70774 8
6.88061 -2.16844 2.70573 7
6.9147 -2.2657 2.72476 8
6.9339 -2.35998 2.73896 8
6.91231 -2.44101 2.73713 7
6.9078 -2.52739 2.74108 5
6.9326 -2.62637 2.75817 7
6.92133 -2.71239 2.76079 6
6.95674 -2.81792 2.7825 8
6.99876 -2.92907 2.80834 7
6.9925 -3.01997 2.8138 7
7.03264 -3.13196 2.838 7
7.02317 -3.22484 2.84385 7
7.01395 -3.31654 2.84866 5
7.0531 -3.4345 2.87484 8
7.03584 -3.52611 2.87832 6
7.06794 -3.6435 2.90235 7
7.10236 -3.76448 2.92747 7
7.09387 -3.86392 2.93538 6
7.1047 -3.97533 2.95177 7
7.1304 -4.09655 2.97434 6
7.15038 -4.21671 2.99508 4
7.17276 -4.33971 3.0174 6
7.22941 -4.48634 3.05426 6
7.22657 -4.6011 3.06842 7
7.28305 -4.75306 3.10661 6
7.23902 -4.84144 3.10207 5
7.29365 -5.00039 3.14246 6
7.30895 -5.13219 3.16421 5
7.35884 -5.29459 3.20363 3
7.39685 -5.44784 3.23636 5
7.3811 -5.56813 3.24852 5
7.41629 -5.72896 3.28343 6
7.43995 -5.88022 3.31165 6
7.5068 -6.07359 3.36225 5
7.50124 -6.21218 3.3814 5
7.59814 -6.43986 3.4475 4
7.55853 -6.55018 3.44961 3
7.67017 -6.8008 3.52412 4
7.7282 -7.01055 3.57546 4
7.78638 -7.22561 3.62805 4
7.75154 -7.35841 3.63803 5
7.85401 -7.62611 3.7134 4
7.91156 -7.85732 3.769 5
7.9417 -8.06674 3.81301 4
7.97841 -8.28837 3.8607 3
8.0603 -8.56322 3.93214 4
8.14352 -8.84829 4.00581 3
8.17379 -9.08338 4.05487 3
8.22569 -9.34876 4.11605 4
8.27359 -9.6273 4.18146 2
8.34032 -9.92644 4.25365 3
8.48328 -10.327 4.36672 3
8.39511 -10.4545 4.36279 1
8.58488 -10.9363 4.50519 2
8.72049 -11.3792 4.62782 2
8.7347 -11.6623 4.68333 2
8.89031 -12.147 4.81703 3
9.00069 -12.5864 4.92979 2
0 0 0 0
0 0 0 0
0 0 0 0
0 0 0 0
0 0 0 0
0 0 0 0
12.3769 -20.5424 7.4056 2
12.2466 -20.8373 7.42701 2
12.0802 -21.1107 7.44002 4
11.9336 -21.3925 7.45614 3
0 0 0 0
0 0 0 0
12.2554 22.5908 8.49903 6
4.1476 7.43982 2.82742 4
4.17884 7.30898 2.80648 9
4.30652 7.33548 2.8461 23
4.34462 7.22068 2.83103 12
4.35594 7.06537 2.80006 18
4.4404 7.02017 2.81208 30
4.54028 7.00852 2.83835 15
4.54367 6.8493 2.80444 27
4.63676 6.81764 2.82291 26
4.76016 6.83764 2.86336 27
4.8547 6.81332 2.88608 15
0 0 0 0
0 0 0 0
0 0 0 0
0 0 0 0
0 0 0 0
0 0 0 0
0 0 0 0
9.20323 10.7557 5.02011 2
0 0 0 0
0 0 0 0
0 0 0 0
0 0 0 0
0 0 0 0
13.5485 13.8299 6.99191 5
13.6082 13.5826 6.96416 8
8.34365 8.14974 4.23867 2
8.22806 7.85812 4.14618 2
8.18679 7.64382 4.09267 2
8.01665 7.31743 3.97692 2
7.91778 7.06459 3.89782 2
7.95263 6.93547 3.88606 8
7.85052 6.69641 3.81113 6
7.89489 6.58075 3.8053 6
7.84356 6.38812 3.75385 7
7.7461 6.16754 3.6846 5
7.75094 6.02805 3.66199 6
7.75152 5.8916 3.64053 7
7.71097 5.72306 3.59808 3
7.65452 5.54994 3.5514 4
7.70058 5.44944 3.55021 5
7.6856 5.31093 3.52406 5
7.58541 5.11385 3.45708 5
7.60908 5.00643 3.44978 4
7.60781 4.88399 3.43119 5
7.5217 4.70983 3.37518 5
7.53283 4.59913 3.36317 3
7.53022 4.48132 3.34546 5
7.4574 4.32459 3.29731 5
7.45973 4.21342 3.28271 5
7.41157 4.07573 3.24626 6
7.42289 3.97268 3.23661 6
7.36264 3.8332 3.1961 6
7.37007 3.73273 3.18686 6
7.3774 3.63113 3.17623 4
7.32886 3.50362 3.14185 6
7.29868 3.38848 3.11747 6
7.30953 3.29376 3.11083 6
7.25528 3.17111 3.077 7
7.26453 3.07621 3.06872 6
7.25044 2.97358 3.05212 6
7.22624 2.86808 3.03184 6
7.30002 2.80277 3.0541 4
7.23882 2.68499 3.01869 7
7.18926 2.57351 2.98842 7
7.17694 2.47801 2.975 6
7.1594 2.38144 2.95973 8
7.13612 2.28396 2.94235 6
7.12511 2.19146 2.93017 6
7.10866 2.0982 2.9159 7
7.1136 2.01171 2.91052 4
7.12195 1.92635 2.90671 7
7.09298 1.83249 2.88872 8
7.0718 1.74149 2.87436 7
7.07257 1.65648 2.86869 8
7.05867 1.56862 2.85726 8
7.06186 1.48508 2.85293 7
7.01845 1.39279 2.83067 8
6.96926 1.30077 2.80632 4
7.04275 1.2316 2.83142 8
7.01919 1.14512 2.81739 8
7.00882 1.06133 2.80888 7
7.01539 0.980638 2.80797 8
7.02124 0.900052 2.80682 8
7.02154 0.8188 2.8036 8
6.99315 0.734845 2.78978 8
6.92233 0.647606 2.75889 4
6.97087 0.572045 2.77572 7
6.98611 0.493013 2.77941 8
7.01459 0.414591 2.78817 8
6.96791 0.3321 2.76788 8
6.98064 0.252962 2.77111 8
6.97829 0.173265 2.7695 7
6.98012 0.0935083 2.76927 8
6.88321 0.013559 2.72987 7
6.94363 -0.0656543 2.75315 8
6.94294 -0.144759 2.75201 8
6.97364 -0.225141 2.76399 9
6.95254 -0.304032 2.75571 8
6.93032 -0.382271 2.74766 8
6.96288 -0.464024 2.76124 8
6.93929 -0.54205 2.75251 7
6.94239 -0.622144 2.75459 8
6.98665 -0.70643 2.77296 8
6.9601 -0.784298 2.764 8
6.97445 -0.866676 2.77157 9
6.96961 -0.946846 2.77132 8
6.9636 -1.02735 2.77131 8
6.97503 -1.11066 2.77861 9
6.9811 -1.19348 2.78385 7
6.96809 -1.27313 2.78129 7
6.98614 -1.35901 2.79128 9
6.97554 -1.43998 2.79077 8
6.96876 -1.52181 2.79185 8
6.98369 -1.6086 2.80179 8
6.97966 -1.69174 2.80419 7
7.00194 -1.78184 2.81725 8
7.00006 -1.86687 2.82166 6
7.01981 -1.95858 2.83513 6
6.98467 -2.03509 2.82636 8
7.02027 -2.1325 2.84629 7
7.03698 -2.22561 2.85895 8
7.04383 -2.316 2.86746 8
7.03626 -2.40258 2.8703 7
7.05788 -2.50047 2.88668 8
7.03896 -2.58499 2.88635 5
7.08518 -2.69312 2.91168 6
7.14692 -2.81028 2.94507 8
7.09442 -2.88356 2.93161 6
7.13079 -2.99483 2.95617 7
7.1582 -3.10245 2.97606 7
7.12857 -3.18616 2.97275 6
7.16182 -3.29878 2.99555 7
7.14613 -3.39195 2.99978 5
7.20506 -3.5218 3.03532 5
7.21309 -3.62682 3.04847 8
7.20188 -3.72536 3.05554 6
7.22674 -3.84355 3.07788 7
7.25825 -3.9675 3.10363 7
7.2554 -4.07401 3.11496 5
7.29181 -4.20459 3.14371 6
7.3503 -4.35054 3.18224 4
7.3305 -4.45214 3.18748 4
7.37343 -4.59348 3.22019 6
7.39057 -4.72094 3.24231 5
7.42134 -4.85994 3.27093 6
7.43304 -4.99126 3.29364 6
7.45236 -5.12683 3.31791 5
7.49067 -5.2818 3.35381 5
7.52107 -5.43083 3.38428 3
7.5924 -5.61663 3.43629 4
7.56945 -5.73149 3.44383 5
7.65428 -5.93551 3.50322 4
7.67521 -6.08983 3.53216 4
7.6696 -6.22989 3.55202 5
7.72674 -6.42494 3.60177 4
7.76593 -6.60375 3.64082 5
7.85993 -6.83993 3.70973 3
7.86492 -7.00347 3.73773 3
7.96521 -7.25711 3.81221 5
7.97811 -7.43671 3.84594 4
7.97816 -7.60802 3.87408 4
8.06691 -7.86221 3.94349 4
8.06751 -8.04247 3.97392 3
8.15771 -8.31845 4.05006 3
8.22683 -8.58041 4.11706 2
8.30772 -8.86222 4.19131 2
8.38338 -9.14652 4.26536 3
8.42045 -9.40642 4.32507 3
8.42689 -9.62879 4.36693 3
8.54061 -9.98155 4.46551 3
8.6141 -10.2986 4.54562 2
0 0 0 0
0 0 0 0
0 0 0 0
0 0 0 0
0 0 0 0
0 0 0 0
0 0 0 0
0 0 0 0
0 0 0 0
0 0 0 0
0 0 0 0
12.9563 -20.5743 7.81913 3
12.6285 -20.5495 7.72007 3
12.2841 -20.4872 7.60868 4
11.8697 -20.3285 7.46472 4
0 0 0 0
11.6733 -21.072 7.56699 3
0 0 0 0
0 0 0 0
12.1885 22.5787 8.73336 5
12.2969 22.1997 8.67509 4
4.17776 7.34092 2.89827 1
4.23372 7.25513 2.89424 6
4.24011 7.08791 2.85768 7
4.31465 7.02785 2.86373 18
4.4116 7.01347 2.88894 17
4.47044 6.93825 2.8892 16
4.51033 6.83476 2.87779 14
4.58212 6.77185 2.88321 13
4.7075 6.79589 2.92637 22
4.79067 6.7564 2.94297 4
0 0 0 0
0 0 0 0
0 0 0 0
0 0 0 0
0 0 0 0
0 0 0 0
0 0 0 0
0 0 0 0
0 0 0 0
0 0 0 0
0 0 0 0
0 0 0 0
0 0 0 0
0 0 0 0
0 0 0 0
0 0 0 0
0 0 0 0
0 0 0 0
8.37637 7.67587 4.29048 1
0 0 0 0
8.06834 7.06304 4.07023 3
8.10031 6.93486 4.05938 4
8.09739 6.77386 4.02887 4
7.96216 6.50728 3.93353 3
7.99821 6.39034 3.92683 3
7.93603 6.19295 3.86961 4
7.9017 6.02573 3.82994 4
7.91595 5.8941 3.81155 5
7.84316 5.70464 3.75464 2
7.8357 5.56591 3.73001 2
7.78247 5.39409 3.68164 4
7.76714 5.25488 3.65458 3
7.73427 5.10648 3.61951 3
7.75791 4.99734 3.61161 4
7.70563 4.84096 3.56867 3
7.72212 4.73019 3.55848 3
7.66563 4.57642 3.51467 3
7.63902 4.44356 3.48538 3
7.59005 4.30012 3.44651 4
7.63699 4.21224 3.45166 4
7.61755 4.08862 3.42676 4
7.55361 3.94583 3.38474 4
7.55556 3.8372 3.37046 4
7.56316 3.73447 3.36066 4
7.52461 3.60848 3.32934 4
7.49593 3.49074 3.30432 4
7.41922 3.35325 3.25851 5
7.42135 3.25324 3.24764 5
7.41808 3.15165 3.23488 6
7.3536 3.02571 3.19544 6
7.32622 2.91695 3.17271 5
7.34488 2.82764 3.17022 5
7.34015 2.73081 3.15889 5
7.3395 2.63505 3.14836 5
7.33707 2.54051 3.13858 6
7.24131 2.41536 3.08913 5
7.25396 2.32818 3.08626 5
7.27019 2.24217 3.08501 5
7.25895 2.14797 3.07223 5
7.21554 2.04574 3.046 5
7.21493 1.95716 3.03906 6
7.20448 1.86653 3.02808 6
7.1981 1.77674 3.018 6
7.15356 1.67984 2.99403 6
7.1672 1.59675 2.99359 5
7.15292 1.50778 2.98159 6
7.17814 1.42791 2.98705 6
7.14329 1.33628 2.96771 5
7.13487 1.25036 2.95945 6
7.13478 1.16645 2.95449 6
7.12405 1.08146 2.94646 7
7.14486 1.00102 2.9512 6
7.11885 0.914469 2.93676 6
7.11476 0.831445 2.93155 6
7.09129 0.746563 2.919 6
7.08109 0.663479 2.91119 6
7.09735 0.583325 2.91521 6
7.07553 0.500115 2.90455 6
7.09015 0.419492 2.90787 7
7.08073 0.33779 2.90219 6
7.08886 0.256841 2.90385 6
7.06807 0.175099 2.89438 7
7.08358 0.0943793 2.89983 6
7.06601 0.0130481 2.89178 5
7.06138 -0.0677591 2.88896 7
7.06068 -0.148558 2.88779 7
7.02644 -0.228304 2.87385 7
7.07476 -0.310968 2.8935 7
7.0248 -0.389648 2.87389 6
7.04349 -0.471443 2.88171 7
7.07529 -0.555086 2.89543 6
7.07797 -0.637085 2.89827 4
7.06173 -0.71719 2.89262 7
7.09058 -0.802291 2.9063 7
7.07705 -0.883075 2.90254 7
7.06718 -0.964145 2.90042 6
7.06143 -1.04566 2.89996 6
7.07712 -1.13093 2.90936 7
7.10114 -1.2184 2.92203 6
7.06027 -1.29477 2.90839 5
7.07793 -1.38182 2.91869 6
7.09881 -1.47078 2.93131 6
7.07805 -1.55141 2.92705 6
7.11105 -1.64351 2.9438 6
7.07003 -1.72016 2.9323 5
7.11403 -1.81716 2.95508 5
7.12136 -1.90575 2.96265 5
7.12683 -1.99521 2.97067 4
7.1225 -2.08244 2.97495 6
7.13508 -2.17525 2.98615 6
7.12015 -2.25996 2.98594 5
7.1174 -2.34874 2.99128 6
7.17527 -2.45912 3.02201 5
7.18288 -2.5543 3.03306 5
7.25126 -2.67177 3.0689 6
7.22592 -2.75717 3.06643 4
7.23004 -2.8541 3.07683 5
7.25894 -2.96213 3.09796 5
7.26484 -3.062 3.10933 5
7.26987 -3.16224 3.12064 6
7.25652 -3.25523 3.12432 5
7.32246 -3.38556 3.16264 4
7.32248 -3.48873 3.17401 4
7.39319 -3.62578 3.21518 4
7.37768 -3.72444 3.22068 4
7.38725 -3.83438 3.23565 4
7.45989 -3.98169 3.28029 4
7.46085 -4.09272 3.29406 4
7.50485 -4.2297 3.32728 4
7.49469 -4.33754 3.3367 3
7.4709 -4.4385 3.34038 3
7.53763 -4.59535 3.38519 3
7.54285 -4.71715 3.4027 3
7.62874 -4.89263 3.45722 4
7.58297 -4.98568 3.45279 3
7.5869 -5.11228 3.47109 4
7.67162 -5.29991 3.52911 4
7.67521 -5.43138 3.54854 3
7.67316 -5.5609 3.56575 3
7.79115 -5.78508 3.64173 3
7.78103 -5.91395 3.65645 3
7.79612 -6.06897 3.68599 3
7.86275 -6.26323 3.7381 2
7.89476 -6.43849 3.77729 3
7.90921 -6.60314 3.80928 3
7.93158 -6.77252 3.84249 2
7.99057 -6.98282 3.89748 3
8.11593 -7.2582 3.98649 2
8.12881 -7.439 4.02145 2
8.16709 -7.64051 4.06629 3
8.21831 -7.86603 4.12208 2
8.26594 -8.09365 4.17745 2
8.39265 -8.40691 4.27473 2
8.33305 -8.53884 4.27812 1
8.47022 -8.8778 4.38403 1
8.67159 -9.29717 4.52565 1
8.61708 -9.45071 4.53548 1
8.69905 -9.75898 4.61842 2
0 0 0 0
0 0 0 0
0 0 0 0
0 0 0 0
0 0 0 0
0 0 0 0
0 0 0 0
0 0 0 0
0 0 0 0
0 0 0 0
0 0 0 0
0 0 0 0
0 0 0 0
0 0 0 0
0 0 0 0
12.4855 -20.443 7.90514 3
0 0 0 0
11.8733 -20.4358 7.72478 3
11.7808 -20.8347 7.78728 4
11.6927 -21.2188 7.84357 4
0 0 0 0
0 0 0 0
11.9256 22.2412 8.83853 6
12.1254 21.996 8.83139 6
0 0 0 0
4.09742 7.06438 2.89556 2
4.18906 7.03384 2.91373 10
4.28076 7.01264 2.93611 23
4.38499 7.0102 2.96676 27
4.39861 6.86341 2.93655 10
4.46291 6.78955 2.9373 21
4.56403 6.78023 2.96635 13
4.66819 6.77305 2.99671 11
4.73248 6.7065 3.00171 3
12.1446 16.814 7.61336 4
0 0 0 0
0 0 0 0
0 0 0 0
0 0 0 0
0 0 0 0
0 0 0 0
0 0 0 0
0 0 0 0
0 0 0 0
0 0 0 0
0 0 0 0
0 0 0 0
0 0 0 0
0 0 0 0
0 0 0 0
0 0 0 0
0 0 0 0
0 0 0 0
0 0 0 0
8.57728 7.53679 4.46393 1
8.40594 7.22336 4.34594 3
8.37147 7.02843 4.29649 5
8.3342 6.84089 4.25004 6
8.29017 6.64657 4.19756 4
8.28411 6.49117 4.16865 4
8.21906 6.28892 4.10834 4
8.06682 6.03001 4.0081 3
8.08111 5.89642 3.98912 6
8.08751 5.76266 3.9695 6
8.05808 5.60571 3.93271 4
7.9956 5.42903 3.88083 5
7.96515 5.27762 3.84521 5
7.97952 5.15783 3.83156 5
7.90184 4.98123 3.77474 6
7.89673 4.85321 3.75275 3
7.96145 4.76849 3.76449 5
7.87338 4.59448 3.70441 5
7.83093 4.45027 3.66676 5
7.79828 4.31433 3.63405 5
7.79113 4.1965 3.61593 6
7.75525 4.06282 3.58272 6
7.74085 3.9445 3.56165 6
7.72637 3.8255 3.53937 4
7.69649 3.70268 3.51216 5
7.69853 3.59657 3.49982 7
7.67016 3.47714 3.4738 7
7.64847 3.36269 3.45125 7
7.61688 3.24543 3.4248 7
7.57101 3.12391 3.39201 6
7.5791 3.02625 3.38404 7
7.53392 2.90948 3.35383 4
7.52674 2.80769 3.3395 6
7.54806 2.71801 3.3391 7
7.51619 2.6101 3.31563 7
7.46557 2.49746 3.28413 6
7.47508 2.4059 3.27929 7
7.48783 2.31559 3.2761 7
7.45107 2.21089 3.25142 7
7.43479 2.11418 3.23687 6
7.39551 2.01131 3.2116 6
7.38583 1.91824 3.20035 7
7.41101 1.83424 3.20431 7
7.36342 1.73325 3.17703 6
7.38644 1.64987 3.18122 7
7.37267 1.55801 3.16891 7
7.33515 1.46262 3.14739 7
7.33264 1.37502 3.14111 6
7.32501 1.2868 3.1324 6
7.32013 1.19984 3.12635 7
7.31517 1.1128 3.11907 7
7.30869 1.02618 3.11228 7
7.29227 0.938809 3.10136 7
7.27456 0.85182 3.09091 7
7.27944 0.767635 3.08897 7
7.24158 0.679922 3.07001 6
7.26258 0.597692 3.07608 7
7.25943 0.51376 3.07292 8
7.26521 0.430344 3.07244 7
7.24195 0.345609 3.06077 7
7.29619 0.264344 3.08192 8
7.24819 0.179169 3.06053 8
7.24066 0.0957074 3.0564 8
7.26441 0.0127534 3.06564 7
7.29205 -0.0710147 3.07634 8
7.30054 -0.155027 3.07902 8
7.27558 -0.238196 3.06858 8
7.27293 -0.321613 3.06737 8
7.29667 -0.406809 3.0783 8
7.25553 -0.488069 3.06108 7
7.25919 -0.572104 3.06352 6
7.28481 -0.658425 3.07564 7
7.28189 -0.742921 3.07636 7
7.32428 -0.831999 3.09523 8
7.32415 -0.917321 3.09715 8
7.3276 -1.00348 3.10099 8
7.33002 -1.08995 3.10508 9
7.32281 -1.17479 3.10431 8
7.30071 -1.25738 3.098 6
7.34119 -1.35146 3.11868 8
7.32638 -1.43565 3.11572 8
7.32388 -1.52315 3.11927 9
7.36141 -1.6189 3.13887 8
7.34821 -1.70491 3.1378 8
7.36963 -1.79929 3.15182 9
7.35903 -1.88632 3.15215 8
7.32877 -1.96901 3.14556 6
7.36083 -2.06799 3.16449 8
7.40879 -2.17391 3.19151 8
7.37598 -2.25688 3.18413 9
7.39092 -2.35457 3.1972 8
7.40018 -2.4512 3.20833 8
7.43027 -2.55591 3.2284 8
7.43713 -2.6539 3.23891 8
7.39468 -2.7353 3.22906 5
7.46445 -2.85813 3.26711 7
7.48878 -2.96673 3.28719 8
7.49013 -3.06732 3.2975 8
7.51198 -3.17746 3.31692 8
7.51526 -3.28094 3.3282 8
7.51737 -3.38503 3.33943 8
7.53064 -3.49504 3.35594 7
7.53449 -3.60167 3.36863 5
7.58563 -3.73468 3.40422 7
7.59497 -3.84718 3.41991 7
7.61358 -3.96783 3.44193 7
7.62415 -4.08356 3.45873 7
7.60715 -4.18821 3.46545 6
7.65796 -4.33184 3.50299 6
7.67829 -4.46054 3.52743 6
7.6849 -4.5831 3.54622 3
7.73353 -4.73337 3.58454 5
7.76418 -4.87487 3.61532 6
7.81627 -5.03311 3.65662 5
7.8352 -5.17238 3.68277 6
7.84413 -5.30753 3.70481 5
7.87797 -5.46217 3.73942 6
7.91359 -5.62037 3.77531 6
7.96341 -5.79643 3.8213 3
8.07627 -6.0193 3.89608 5
8.0532 -6.14885 3.90845 5
8.07516 -6.31028 3.94091 5
8.11347 -6.49363 3.9849 5
8.192 -6.70802 4.04653 5
8.26732 -6.93095 4.11093 4
8.29978 -7.11665 4.15185 5
8.2803 -7.26723 4.17053 2
8.38038 -7.5272 4.25082 4
8.39335 -7.70858 4.28473 4
8.41366 -7.90681 4.32686 3
8.51168 -8.18433 4.41029 4
8.61169 -8.47204 4.49624 4
8.67006 -8.72611 4.56245 3
8.71241 -8.96249 4.61747 3
8.78166 -9.24185 4.69265 1
8.94206 -9.62711 4.81847 2
8.95926 -9.86778 4.86958 2
9.05104 -10.1975 4.96257 2
9.12119 -10.5132 5.0463 3
9.25235 -10.9108 5.16624 2
9.38525 -11.3237 5.29029 2
9.46022 -11.6785 5.38419 2
0 0 0 0
0 0 0 0
0 0 0 0
0 0 0 0
0 0 0 0
0 0 0 0
0 0 0 0
0 0 0 0
0 0 0 0
0 0 0 0
12.5349 -20.1207 8.09569 6
12.3415 -20.3039 8.07577 8
12.0701 -20.3911 8.01796 13
11.8005 -20.4469 7.94934 13
11.6683 -20.743 7.97473 10
11.5584 -21.1258 8.03197 10
0 0 0 0
0 0 0 0
0 0 0 0
12.0421 21.9899 9.0643 6
0 0 0 0
4.04461 7.00561 2.94813 7
4.16681 7.03833 2.99353 19
4.26828 7.03302 3.0234 32
4.33548 6.97052 3.02891 28
4.36128 6.83358 3.00206 19
4.47769 6.84882 3.04223 31
4.52984 6.76466 3.03864 26
4.62051 6.73786 3.06126 16
12.4241 17.6944 8.13167 6
12.3865 17.2325 8.01189 4
12.2748 16.6835 7.84862 4
0 0 0 0
0 0 0 0
0 0 0 0
0 0 0 0
0 0 0 0
0 0 0 0
0 0 0 0
0 0 0 0
0 0 0 0
0 0 0 0
0 0 0 0
0 0 0 0
0 0 0 0
0 0 0 0
0 0 0 0
0 0 0 0
0 0 0 0
0 0 0 0
8.92595 7.87349 4.78932 1
8.72808 7.52825 4.65177 2
8.54533 7.2007 4.52099 3
8.50742 7.0082 4.47152 6
8.57428 6.89858 4.47458 5
8.52013 6.69908 4.41902 5
8.44145 6.48489 4.3511 4
8.36904 6.27661 4.28491 3
8.30945 6.08673 4.22966 5
8.29949 5.93643 4.20009 6
8.27252 5.77661 4.16274 5
8.21264 5.59708 4.1096 6
8.23105 5.47343 4.09609 5
8.1933 5.31461 4.05534 5
8.20425 5.18979 4.03939 5
8.09968 4.99454 3.96725 3
8.07898 4.85499 3.93693 5
8.10809 4.74656 3.93158 5
8.05584 4.59269 3.88692 5
8.03209 4.45974 3.85913 6
7.97969 4.31101 3.81552 5
7.9563 4.18267 3.78881 6
7.94092 4.05805 3.76441 6
7.92248 3.93574 3.74081 3
7.89865 3.81227 3.71489 6
7.84377 3.67607 3.67492 6
7.85856 3.57389 3.66778 6
7.84668 3.4603 3.64859 7
7.75734 3.31534 3.59406 6
7.76369 3.21292 3.58425 6
7.7553 3.10661 3.56934 6
7.78912 3.0165 3.57239 4
7.69242 2.87835 3.5175 6
7.68434 2.77568 3.50358 7
7.69683 2.68092 3.49922 6
7.67353 2.5746 3.47878 7
7.64904 2.46895 3.45776 6
7.61872 2.36261 3.43472 6
7.60069 2.26126 3.41732 7
7.60701 2.16874 3.41229 4
7.58143 2.0679 3.39312 7
7.56836 1.97139 3.37961 7
7.54489 1.87297 3.36184 6
7.54744 1.78139 3.35571 7
7.55731 1.69274 3.35431 7
7.522 1.59401 3.33149 6
7.48965 1.49742 3.3114 6
7.58255 1.42545 3.34675 4
7.50258 1.32148 3.307 6
7.48082 1.22885 3.29182 7
7.50275 1.14423 3.29707 7
7.46064 1.05019 3.27417 7
7.44008 0.960091 3.26097 7
7.45057 0.874217 3.26122 7
7.43676 0.785934 3.25224 7
7.43153 0.699034 3.24676 4
7.42527 0.612202 3.24102 8
7.43147 0.526657 3.24177 7
7.39598 0.438669 3.22332 7
7.39151 0.352915 3.21933 7
7.40895 0.268201 3.22482 7
7.416 0.182943 3.22706 8
7.40856 0.0973999 3.22283 7
7.38203 0.0120377 3.21037 5
7.45081 -0.0736427 3.23929 7
7.43173 -0.159043 3.23008 7
7.43433 -0.245023 3.23108 8
7.44077 -0.331064 3.23407 7
7.43198 -0.416548 3.23134 7
7.4504 -0.503782 3.23955 8
7.4264 -0.588284 3.23011 6
7.42453 -0.674191 3.23061 6
7.43991 -0.762073 3.23831 7
7.41753 -0.84632 3.23086 7
7.47184 -0.939989 3.25691 8
7.45248 -1.02488 3.25069 7
7.45938 -1.11337 3.25612 7
7.48764 -1.20618 3.27219 8
7.48811 -1.29474 3.27485 6
7.46945 -1.38027 3.27009 6
7.48135 -1.47165 3.27917 8
7.47362 -1.56015 3.28084 7
7.47035 -1.64935 3.2832 8
7.50103 -1.7472 3.30182 7
7.50864 -1.84046 3.31031 8
7.51507 -1.93408 3.31877 8
7.53391 -2.0314 3.33258 6
7.51632 -2.11939 3.3304 5
7.53687 -2.2197 3.34636 8
7.5561 -2.32052 3.36228 7
7.56574 -2.41929 3.37373 8
7.56097 -2.51399 3.37927 8
7.55065 -2.60742 3.38232 7
7.57001 -2.71161 3.39897 8
7.61386 -2.82624 3.42668 6
7.62109 -2.92963 3.43985 5
7.61944 -3.02942 3.44746 8
7.64547 -3.14246 3.46967 7
7.6959 -3.26742 3.50312 7
7.70191 -3.37529 3.51687 8
7.68173 -3.47218 3.51846 7
7.72331 -3.59815 3.54913 7
7.7588 -3.72339 3.5772 5
7.78052 -3.84396 3.5991 4
7.76193 -3.9477 3.60484 7
7.76441 -4.06071 3.61836 6
7.77599 -4.1825 3.63896 6
7.83605 -4.33012 3.68022 6
7.87267 -4.46966 3.71327 6
7.85079 -4.57825 3.71936 6
7.96694 -4.76982 3.79125 4
7.99715 -4.91378 3.82289 4
7.97829 -5.02942 3.83148 6
8.03973 -5.1981 3.87942 6
8.05222 -5.33783 3.90432 5
8.03974 -5.46292 3.91753 7
8.11319 -5.64909 3.97319 6
8.10841 -5.78381 3.99133 5
8.27423 -6.04521 4.09435 4
8.27279 -6.19365 4.11857 5
8.23139 -6.30951 4.12063 6
8.35345 -6.55374 4.20478 5
8.33792 -6.69968 4.22406 4
8.33391 -6.85198 4.24692 5
8.4672 -7.1279 4.34373 4
8.47216 -7.2954 4.37255 4
8.5547 -7.54055 4.44619 3
8.61599 -7.77327 4.51031 3
8.63939 -7.97045 4.55185 4
8.72391 -8.23569 4.63059 3
8.76967 -8.47223 4.69085 3
8.90294 -8.79252 4.79477 4
8.97318 -9.06694 4.87101 3
8.96697 -9.27061 4.90757 3
9.13442 -9.66212 5.04088 3
9.21857 -9.9763 5.13083 2
9.24041 -10.2307 5.18796 3
9.35732 -10.5997 5.3003 3
0 0 0 0
9.66174 -11.4451 5.56871 3
9.70052 -11.7582 5.6447 3
0 0 0 0
0 0 0 0
0 0 0 0
0 0 0 0
0 0 0 0
0 0 0 0
0 0 0 0
0 0 0 0
0 0 0 0
0 0 0 0
12.7062 -20.023 8.37668 4
12.4707 -20.1406 8.32811 7
12.3458 -20.4412 8.35561 16
12.0634 -20.4821 8.27657 17
11.7305 -20.4646 8.1764 19
11.528 -20.6371 8.15364 13
0 0 0 0
0 0 0 0
0 0 0 0
0 0 0 0
0 0 0 0
0 0 0 0
4.02187 7.00977 3.02687 8
4.1299 7.01804 3.06258 27
4.248 7.04074 3.10552 27
4.28104 6.92245 3.08665 25
4.34939 6.85301 3.0891 21
4.46073 6.85979 3.12674 24
4.55754 6.84182 3.15355 28
4.557 6.67962 3.11398 5
12.3522 17.6811 8.33807 8
12.4797 17.4471 8.32399 8
12.4525 17.0057 8.20914 6
12.3806 16.5182 8.06972 4
0 0 0 0
0 0 0 0
0 0 0 0
0 0 0 0
0 0 0 0
0 0 0 0
0 0 0 0
0 0 0 0
0 0 0 0
0 0 0 0
0 0 0 0
0 0 0 0
0 0 0 0
0 0 0 0
0 0 0 0
0 0 0 0
0 0 0 0
0 0 0 0
0 0 0 0
8.9522 7.57771 4.88263 2
8.93676 7.38876 4.8388 2
8.76066 7.07903 4.71289 4
8.68038 6.84902 4.63676 6
8.73896 6.73678 4.63925 4
8.6199 6.49075 4.54813 3
8.55601 6.2921 4.48772 3
8.5787 6.15994 4.47347 5
8.49069 5.95153 4.40211 8
8.51355 5.8236 4.38883 5
8.42348 5.62193 4.31859 5
8.4384 5.49338 4.30274 4
8.31971 5.28116 4.21956 3
8.29524 5.13289 4.18503 3
8.32407 5.01878 4.17769 4
8.27804 4.86505 4.13631 5
8.2357 4.71301 4.09451 6
8.27171 4.60725 4.09225 4
8.16755 4.42845 4.02367 6
8.17425 4.3125 4.01026 6
8.14846 4.1789 3.97901 5
8.16074 4.06777 3.96883 3
8.06862 3.90716 3.90866 5
8.08168 3.7998 3.89972 6
8.01882 3.65829 3.8544 7
7.94537 3.5149 3.80494 6
7.99649 3.42769 3.81502 7
7.97354 3.31121 3.79209 7
7.9461 3.19237 3.76564 6
7.95903 3.09244 3.76013 4
7.84644 2.94552 3.69581 6
7.87802 2.85467 3.69973 6
7.85293 2.74393 3.6768 7
7.80896 2.62783 3.64574 6
7.82886 2.53427 3.64471 7
7.79958 2.42571 3.62085 7
7.75104 2.31351 3.58991 6
7.86375 2.24924 3.63348 4
7.77843 2.12734 3.58435 6
7.71292 2.0143 3.54613 6
7.73839 1.92647 3.55136 7
7.70166 1.82301 3.52677 6
7.69004 1.72716 3.51489 7
7.68667 1.63313 3.50602 7
7.66846 1.53719 3.49129 5
7.72029 1.45561 3.51022 4
7.65963 1.35257 3.47659 6
7.65643 1.26094 3.46921 7
7.6248 1.16559 3.45009 7
7.62814 1.07612 3.44704 7
7.62137 0.985691 3.44067 7
7.57778 0.891158 3.4164 7
7.56428 0.801247 3.40695 6
7.59564 0.715886 3.41768 4
7.61239 0.628874 3.42202 7
7.59653 0.539135 3.41155 7
7.58847 0.450463 3.40592 8
7.5976 0.362977 3.40797 7
7.55581 0.273571 3.38702 7
7.56316 0.186454 3.38932 8
7.53274 0.0985017 3.37476 6
7.58394 0.011412 3.39673 6
7.59763 -0.0762177 3.40185 8
7.59687 -0.164122 3.40058 8
7.57659 -0.251421 3.39139 8
7.60572 -0.340543 3.40467 8
7.61102 -0.428865 3.40722 8
7.61047 -0.517343 3.40824 8
7.59096 -0.604222 3.40085 7
7.59343 -0.69286 3.40314 6
7.62213 -0.784258 3.4174 8
7.63132 -0.874673 3.42401 8
7.58557 -0.958126 3.40491 7
7.64297 -1.05537 3.43336 8
7.61782 -1.14173 3.42469 8
7.61849 -1.23216 3.42872 8
7.60457 -1.32056 3.4264 6
7.64908 -1.41903 3.44914 7
7.65118 -1.51113 3.45438 8
7.62531 -1.59828 3.44799 8
7.63914 -1.69335 3.4585 7
7.66042 -1.79149 3.4738 8
7.66792 -1.88623 3.48144 8
7.66927 -1.98071 3.48783 7
7.6689 -2.07623 3.49526 7
7.67722 -2.1737 3.5051 6
7.70624 -2.2781 3.52441 7
7.74672 -2.38778 3.55075 9
7.69844 -2.47099 3.53668 7
7.72747 -2.57926 3.55812 8
7.75122 -2.68708 3.57749 8
7.70447 -2.77073 3.56431 6
7.81172 -2.91136 3.62291 6
7.79321 -3.00675 3.62305 7
7.76811 -3.10129 3.6223 6
7.81535 -3.22412 3.65359 7
7.82189 -3.33318 3.66805 7
7.85212 -3.45404 3.69404 7
7.90206 -3.5854 3.72952 7
7.92917 -3.70849 3.75471 6
7.90089 -3.80692 3.75393 5
7.94606 -3.94153 3.78818 6
7.96715 -4.0686 3.81367 5
7.97181 -4.18687 3.82943 6
7.98313 -4.30976 3.84871 6
7.99942 -4.43934 3.87328 6
8.05803 -4.59524 3.91854 6
8.10796 -4.74624 3.95815 5
8.07909 -4.856 3.962 4
8.15884 -5.03317 4.01962 5
8.23553 -5.21253 4.07666 5
8.21297 -5.33187 4.08528 6
8.26581 -5.50255 4.13159 5
8.255 -5.63288 4.14698 5
8.32544 -5.8223 4.20399 6
8.39352 -6.01383 4.26033 5
8.3911 -6.15817 4.28211 3
8.47574 -6.37001 4.34891 4
8.54587 -6.57623 4.40928 3
8.581 -6.76426 4.45561 5
8.64092 -6.97162 4.51266 4
8.61266 -7.11608 4.52798 3
8.70608 -7.35982 4.60462 5
8.78096 -7.60034 4.67704 3
8.72738 -7.72658 4.6778 3
8.93009 -8.09269 4.82115 3
8.95615 -8.29987 4.8668 3
9.00172 -8.53808 4.92884 4
9.10027 -8.83303 5.02134 3
9.16509 -9.0952 5.09233 3
9.26345 -9.40631 5.18864 3
9.38512 -9.75151 5.30025 2
9.33158 -9.92052 5.31474 2
9.55221 -10.3808 5.4821 2
9.66839 -10.751 5.59766 2
0 0 0 0
9.85005 -11.4682 5.80772 2
0 0 0 0
0 0 0 0
0 0 0 0
0 0 0 0
0 0 0 0
0 0 0 0
0 0 0 0
0 0 0 0
0 0 0 0
0 0 0 0
0 0 0 0
0 0 0 0
12.7908 -20.2792 8.71223 6
12.577 -20.4391 8.67904 10
12.305 -20.5046 8.60688 18
11.9778 -20.4725 8.49624 15
11.7003 -20.5181 8.41904 13
11.4121 -20.5751 8.34859 13
0 0 0 0
0 0 0 0
0 0 0 0
0 0 0 0
0 0 0 0
3.89802 7.01596 3.07414 2
4.00566 7.0255 3.11055 9
4.10404 7.01737 3.13993 20
4.20541 7.01188 3.17126 18
4.23128 6.88192 3.14647 23
4.28746 6.80354 3.14484 8
4.42307 6.83941 3.1966 16
4.51422 6.81342 3.22038 10
12.1199 17.858 8.5373 6
12.2615 17.6396 8.53057 7
12.4856 17.542 8.58215 9
12.5815 17.2652 8.54729 5
12.3098 16.5006 8.26657 5
0 0 0 0
0 0 0 0
0 0 0 0
0 0 0 0
0 0 0 0
0 0 0 0
12.3258 14.0723 7.69923 8
0 0 0 0
0 0 0 0
0 0 0 0
0 0 0 0
0 0 0 0
0 0 0 0
0 0 0 0
0 0 0 0
0 0 0 0
0 0 0 0
0 0 0 0
0 0 0 0
0 0 0 0
0 0 0 0
0 0 0 0
8.97783 7.11427 4.94005 2
8.98903 6.95825 4.91537 4
8.91384 6.73974 4.84442 1
8.7908 6.49093 4.74884 2
8.73827 6.2992 4.6924 3
8.72771 6.14127 4.65935 3
8.73033 5.99449 4.63416 5
8.68111 5.81538 4.58239 4
8.60654 5.62322 4.51798 3
8.55244 5.44803 4.46507 4
8.57698 5.32555 4.45401 2
8.48848 5.13892 4.38795 2
8.47816 4.99911 4.36014 3
8.47987 4.87129 4.34165 3
8.41379 4.70416 4.28658 3
8.3801 4.56044 4.25093 4
8.39414 4.44241 4.2377 3
8.34872 4.29661 4.19711 4
8.26018 4.13194 4.13565 3
8.28855 4.02761 4.13333 3
8.29107 3.91137 4.11808 4
8.25907 3.78029 4.08607 4
8.24056 3.65895 4.06369 4
8.22209 3.53715 4.03912 4
8.19766 3.41468 4.01214 4
8.14129 3.28204 3.97214 5
8.06172 3.14299 3.92084 3
8.12547 3.06058 3.93994 4
8.05596 2.92868 3.89409 5
8.04891 2.82118 3.87919 4
8.05795 2.72011 3.87227 5
7.97078 2.58835 3.81914 5
7.96358 2.48503 3.80647 5
7.97358 2.38691 3.8004 6
8.00364 2.29573 3.80583 4
7.94053 2.17864 3.76702 4
7.89806 2.06906 3.73829 6
7.88029 1.96789 3.72283 5
7.8532 1.86445 3.70154 6
7.84638 1.76741 3.69146 6
7.82556 1.66787 3.67484 5
7.83884 1.57615 3.67463 6
7.82478 1.4792 3.66136 5
7.814 1.3835 3.64989 4
7.78833 1.28621 3.63294 6
7.75723 1.18916 3.61336 5
7.77015 1.09898 3.61441 6
7.75949 1.00589 3.60474 6
7.77001 0.915975 3.6058 6
7.75265 0.822921 3.59429 6
7.75225 0.732204 3.59062 5
7.69701 0.636941 3.56157 5
7.71735 0.548621 3.56759 6
7.73667 0.459986 3.57414 6
7.70987 0.368607 3.55948 6
7.74099 0.280359 3.57152 7
7.65735 0.188428 3.532 6
7.70455 0.10021 3.55268 6
7.75553 0.010946 3.57519 6
7.73283 -0.0789966 3.56368 6
7.74567 -0.168944 3.56866 6
7.77082 -0.259663 3.58042 7
7.72685 -0.347949 3.56056 6
7.72749 -0.437856 3.56109 6
7.73135 -0.528179 3.56423 7
7.70272 -0.616176 3.55249 4
7.74122 -0.70961 3.57155 6
7.71531 -0.797552 3.56111 6
7.74735 -0.89183 3.57753 6
7.72361 -0.980186 3.56945 6
7.68588 -1.06609 3.5546 6
7.78205 -1.17141 3.60194 7
7.78284 -1.26393 3.60527 6
7.80887 -1.36145 3.62159 4
7.78477 -1.45074 3.61477 6
7.75098 -1.53753 3.60355 6
7.76519 -1.6342 3.61488 6
7.80955 -1.73799 3.64015 5
7.77251 -1.82503 3.62892 5
7.78391 -1.9226 3.63883 6
7.84644 -2.03488 3.67429 6
7.76236 -2.10941 3.64162 3
7.81396 -2.22086 3.67232 5
7.84572 -2.32913 3.69554 6
7.83357 -2.42416 3.69677 6
7.90213 -2.54633 3.73753 6
7.87407 -2.63858 3.73308 6
7.87074 -2.73955 3.74064 6
7.93076 -2.86381 3.77828 5
7.95075 -2.97522 3.79742 3
7.97374 -3.08918 3.81796 5
7.97422 -3.19537 3.82796 5
7.97661 -3.30467 3.84108 5
8.06572 -3.45205 3.89648 4
8.09571 -3.57505 3.92157 4
8.11023 -3.69452 3.94166 4
8.13987 -3.82244 3.96944 4
8.15142 -3.94344 3.98874 2
8.14951 -4.05897 4.00161 4
8.16225 -4.18321 4.02214 4
8.19185 -4.32069 4.05381 4
8.20941 -4.45097 4.07749 3
8.25174 -4.59964 4.11628 3
8.26174 -4.72941 4.13737 4
8.31956 -4.8924 4.18514 4
8.36939 -5.05036 4.22711 2
8.36 -5.17818 4.24243 3
8.37257 -5.32123 4.26918 3
8.46753 -5.52014 4.33884 3
8.50578 -5.6866 4.38026 3
8.53052 -5.84659 4.41557 3
8.53411 -5.99439 4.44019 3
8.57298 -6.16998 4.48417 3
8.72776 -6.43478 4.59027 1
8.65769 -6.53684 4.57841 2
8.73967 -6.75692 4.64799 3
8.72039 -6.90226 4.6642 2
8.79285 -7.12879 4.73418 2
8.88974 -7.37617 4.81534 2
8.94758 -7.5966 4.87641 2
9.01216 -7.83397 4.94588 2
0 0 0 0
9.18394 -8.36055 5.11002 2
9.3625 -8.71657 5.24386 2
9.34882 -8.90862 5.27638 1
9.39506 -9.16285 5.34445 2
0 0 0 0
9.62961 -9.82661 5.56183 2
0 0 0 0
0 0 0 0
0 0 0 0
0 0 0 0
0 0 0 0
0 0 0 0
0 0 0 0
0 0 0 0
0 0 0 0
0 0 0 0
0 0 0 0
0 0 0 0
0 0 0 0
0 0 0 0
0 0 0 0
0 0 0 0
0 0 0 0
0 0 0 0
12.7599 -20.3552 8.97434 6
12.5482 -20.5239 8.94374 9
12.2393 -20.53 8.84369 10
11.9532 -20.5675 8.75971 10
11.6086 -20.4997 8.63234 9
0 0 0 0
0 0 0 0
0 0 0 0
0 0 0 0
0 0 0 0
0 0 0 0
3.86748 7.00718 3.14626 9
3.97005 7.0085 3.17984 19
4.06872 7.00032 3.2099 25
4.13179 6.93067 3.21235 28
4.17937 6.837 3.20333 20
4.28435 6.83755 3.23887 13
4.39794 6.84824 3.28018 24
4.44101 6.74849 3.26892 7
11.9975 17.7944 8.71798 8
12.3574 17.8933 8.86779 8
12.4327 17.578 8.81383 9
12.4839 17.2364 8.74532 16
12.1716 16.4142 8.42767 5
12.2576 16.1457 8.39087 3
12.4408 16.0093 8.42207 6
12.4219 15.6172 8.31863 7
12.3148 15.1276 8.15975 9
12.2344 14.6852 8.02301 8
12.1583 14.2608 7.89247 13
12.2388 14.0436 7.87508 16
12.251 13.7386 7.80689 6
12.1784 13.3463 7.6867 4
0 0 0 0
0 0 0 0
0 0 0 0
0 0 0 0
0 0 0 0
0 0 0 0
0 0 0 0
0 0 0 0
0 0 0 0
0 0 0 0
0 0 0 0
0 0 0 0
9.55521 7.78324 5.44831 2
9.42052 7.49735 5.33665 2
9.27045 7.20695 5.21874 2
9.2026 6.98746 5.14833 3
9.17191 6.79975 5.09962 4
9.13096 6.6088 5.04659 3
9.04237 6.38784 4.96799 4
9.00311 6.20576 4.91777 3
8.95732 6.02298 4.86528 5
8.90877 5.84215 4.81185 6
8.90355 5.69238 4.78259 5
8.85941 5.52397 4.73638 4
8.81137 5.35283 4.6858 4
8.77051 5.19224 4.64263 4
8.80822 5.07663 4.63874 5
8.72763 4.89831 4.5759 4
8.72816 4.76822 4.55622 4
8.68927 4.61536 4.51361 4
8.67424 4.48025 4.48714 4
8.58476 4.30933 4.42228 3
8.58259 4.18476 4.40328 4
8.5461 4.04516 4.36681 5
8.48973 3.90084 4.3231 5
8.46201 3.76955 4.29239 5
8.46473 3.65491 4.27936 5
8.40884 3.51511 4.23494 6
8.40003 3.39857 4.21695 6
8.41553 3.2921 4.21157 4
8.33246 3.14897 4.15663 6
8.34083 3.04246 4.14813 6
8.32275 2.92664 4.1266 6
8.26908 2.80039 4.08747 6
8.28676 2.6991 4.08434 6
8.27235 2.58924 4.06692 7
8.25676 2.48008 4.04946 6
8.21393 2.36384 4.01862 5
8.13898 2.24025 3.97254 6
8.16784 2.14658 3.97723 7
8.15171 2.04126 3.96033 7
8.15566 1.94238 3.95463 8
8.14573 1.84035 3.94252 7
8.15661 1.74348 3.94022 8
8.1223 1.63789 3.91655 7
8.05138 1.52623 3.8752 6
8.08078 1.4351 3.88383 8
8.05199 1.33323 3.86327 8
8.10205 1.24502 3.88176 9
8.09689 1.14837 3.87542 8
8.05135 1.04662 3.84813 8
8.02697 0.948332 3.83127 8
7.98765 0.849716 3.80853 7
7.96062 0.753255 3.79193 6
8.04499 0.667235 3.82971 8
8.02982 0.57183 3.81845 8
8.01299 0.477222 3.80828 8
8.01363 0.38373 3.80614 8
8.00866 0.28991 3.80131 8
7.97524 0.195905 3.78444 8
7.99068 0.103382 3.7906 8
7.94658 0.0101993 3.76863 6
7.99176 -0.0828679 3.78898 9
7.98191 -0.175524 3.78335 9
7.9933 -0.269 3.78896 9
7.94041 -0.359927 3.76407 8
7.96345 -0.4538 3.77556 9
7.95356 -0.546405 3.77235 9
7.98846 -0.641987 3.78916 8
7.96315 -0.733394 3.77899 6
7.9823 -0.828781 3.78964 8
8.01297 -0.926626 3.80722 9
7.96674 -1.01569 3.78825 9
7.9783 -1.11122 3.79566 9
8.02869 -1.21363 3.82276 8
8.0016 -1.30539 3.81445 8
7.97847 -1.3968 3.80692 7
7.9718 -1.4916 3.80844 6
8.0131 -1.59607 3.83304 9
8.00433 -1.69158 3.8337 8
8.03889 -1.79663 3.85555 9
8.05033 -1.89744 3.86593 9
8.05993 -1.99925 3.87739 9
8.08169 -2.10493 3.89489 9
8.11519 -2.21465 3.91812 8
8.10419 -2.31325 3.91991 6
8.08329 -2.40901 3.91719 8
8.10916 -2.5191 3.93732 9
8.10275 -2.62149 3.94354 8
8.15096 -2.74234 3.97674 8
8.1506 -2.84853 3.98649 8
8.16621 -2.96104 4.004 8
8.19334 -3.07886 4.02772 7
8.18522 -3.18431 4.03406 5
8.2221 -3.30872 4.063 8
8.25656 -3.43541 4.09301 7
8.2277 -3.53504 4.08996 6
8.27983 -3.67267 4.12959 7
8.30687 -3.79896 4.15481 6
8.31844 -3.92189 4.17494 6
8.3859 -4.07332 4.22356 5
8.46317 -4.23317 4.27785 4
8.42095 -4.33445 4.27199 6
8.47284 -4.488 4.31664 6
8.45178 -4.60242 4.32232 6
8.48152 -4.74583 4.35419 6
8.55484 -4.91972 4.41169 6
8.61216 -5.08436 4.4588 5
8.65693 -5.24819 4.50328 4
8.72077 -5.42378 4.55565 4
8.77991 -5.60358 4.60876 5
8.7904 -5.75512 4.63739 5
8.84474 -5.93829 4.68967 5
8.83559 -6.08202 4.70917 5
8.90346 -6.28183 4.77063 4
8.89726 -6.43274 4.79302 4
9.02232 -6.68228 4.88709 4
9.08428 -6.89135 4.94841 3
9.08527 -7.05782 4.9772 4
9.16649 -7.2903 5.05132 4
9.19751 -7.48802 5.09891 3
9.29986 -7.75551 5.19071 4
9.35922 -7.98684 5.25678 3
9.40475 -8.21166 5.31569 3
9.44621 -8.44518 5.37821 3
9.66472 -8.83846 5.53906 2
9.6158 -9.00243 5.55301 3
9.7862 -9.36959 5.69046 3
9.87232 -9.67476 5.78629 2
10.1867 -10.2081 6.01339 8
10.1468 -10.4072 6.03988 4
10.1299 -10.6329 6.08044 2
0 0 0 0
0 0 0 0
0 0 0 0
0 0 0 0
0 0 0 0
0 0 0 0
0 0 0 0
11.6986 -14.7574 7.55364 8
11.6409 -15.0338 7.59502 7
11.7674 -15.5598 7.75972 3
11.6626 -15.7911 7.77572 10
11.5355 -15.9958 7.7779 10
0 0 0 0
0 0 0 0
12.1511 -18.1137 8.4876 4
11.8504 -18.1048 8.38179 5
11.6886 -18.3029 8.37369 24
11.6477 -18.6971 8.45353 7
12.2855 -20.2235 9.03804 10
12.1366 -20.4933 9.05346 12
11.8082 -20.458 8.93574 11
11.5075 -20.4627 8.83732 13
0 0 0 0
0 0 0 0
0 0 0 0
0 0 0 0
0 0 0 0
0 0 0 0
3.86313 7.04666 3.24038 18
3.93447 6.99072 3.24853 27
4.04913 7.01056 3.29244 31
4.0748 6.87733 3.26474 26
4.15579 6.83938 3.28203 26
4.25362 6.82767 3.31268 14
4.36447 6.83431 3.35275 23
11.6143 17.7466 8.80461 19
11.7208 17.4785 8.77057 12
11.9858 17.4461 8.85576 11
12.4712 17.722 9.1013 13
12.089 16.7745 8.717 8
12.1454 16.4576 8.65477 9
12.3819 16.3869 8.72293 7
12.3571 15.9745 8.60833 5
12.3359 15.5967 8.50995 9
12.1268 14.9791 8.27593 15
12.1055 14.6092 8.1756 22
12.0394 14.1962 8.04813 123
12.162 14.028 8.05758 44
12.3006 13.8633 8.06922 8
12.339 13.5891 8.01677 5
12.069 13.0018 7.77626 3
12.0077 12.6395 7.66496 5
0 0 0 0
0 0 0 0
0 0 0 0
0 0 0 0
0 0 0 0
0 0 0 0
0 0 0 0
0 0 0 0
0 0 0 0
0 0 0 0
10.0272 8.20457 5.88386 2
9.87763 7.89566 5.75806 1
9.80153 7.65266 5.67692 2
9.64191 7.35199 5.5496 1
9.41548 7.00968 5.38585 3
9.44378 6.86303 5.36894 6
9.31868 6.60903 5.26649 3
9.29343 6.43131 5.22157 3
9.2588 6.24967 5.17187 4
9.2173 6.06691 5.11986 5
9.23575 5.93022 5.10495 6
9.12057 5.70715 5.01381 2
9.03797 5.51336 4.94494 3
9.0717 5.38912 4.93724 4
8.98432 5.19893 4.86724 4
8.93385 5.03363 4.81788 4
8.97986 4.92452 4.82157 5
8.93137 4.76176 4.77166 5
8.88259 4.60456 4.72511 3
8.78289 4.42465 4.65275 3
8.79319 4.30484 4.64112 3
8.77895 4.17193 4.6149 4
8.75898 4.03824 4.5858 4
8.73195 3.90458 4.5561 4
8.74597 3.78888 4.54556 5
8.6784 3.64101 4.49533 5
8.66323 3.51742 4.47269 4
8.63791 3.39117 4.44566 3
8.65357 3.28206 4.43925 4
8.57924 3.13997 4.38736 5
8.52009 3.00615 4.34372 6
8.5446 2.90321 4.34275 5
8.48984 2.77528 4.30392 6
8.45075 2.65474 4.2734 6
8.47154 2.5525 4.27115 4
8.49913 2.45325 4.27475 5
8.41212 2.32315 4.22233 5
8.36764 2.20627 4.19013 6
8.36145 2.1003 4.17692 7
8.37492 2.00086 4.17578 6
8.32195 1.88612 4.14129 6
8.32902 1.78574 4.13706 7
8.30871 1.68032 4.11912 6
8.26912 1.57247 4.09329 6
8.27741 1.47406 4.09005 7
8.28423 1.37586 4.08768 6
8.26796 1.27444 4.07378 8
8.25072 1.17318 4.0593 7
8.26734 1.07757 4.06347 7
8.24352 0.97654 4.04595 8
8.20032 0.874716 4.02078 7
8.25011 0.782496 4.04107 6
8.19977 0.681428 4.01369 7
8.2118 0.585918 4.01561 7
8.2 0.488965 4.00712 8
8.18707 0.392432 3.99835 7
8.17356 0.296039 3.98903 7
8.16735 0.200286 3.98492 8
8.15104 0.104628 3.97615 7
8.14766 0.00940582 3.97313 6
8.17013 -0.0859955 3.98326 9
8.14683 -0.180924 3.97064 8
8.16258 -0.276698 3.97857 8
8.1862 -0.373301 3.99059 8
8.17781 -0.468733 3.98674 8
8.14534 -0.562512 3.97278 8
8.15717 -0.659006 3.97903 6
8.18578 -0.757576 3.99457 6
8.20872 -0.856516 4.0079 8
8.1763 -0.95024 3.99531 8
8.18856 -1.04832 4.00314 8
8.19463 -1.14685 4.00962 8
8.20425 -1.24592 4.01799 8
8.18602 -1.34114 4.01272 8
8.20215 -1.44277 4.02542 7
8.20875 -1.54263 4.03262 7
8.22239 -1.64476 4.04471 8
8.2703 -1.75511 4.07357 9
8.22474 -1.84599 4.05684 7
8.24422 -1.95126 4.07205 8
8.27053 -2.0602 4.09242 9
8.24337 -2.1563 4.0865 7
8.26379 -2.26425 4.10233 6
8.30824 -2.38097 4.13249 7
8.30295 -2.48538 4.13946 8
8.31907 -2.59584 4.1557 8
8.3426 -2.70981 4.1759 7
8.3252 -2.81258 4.1773 7
8.35795 -2.933 4.20441 8
8.3596 -3.04381 4.21615 6
